551060.8 3622595.3 1447.7
551138.8 3622595.7 1444.3
551216.9 3622596.1 1443.2
551295.0 3622596.5 1459.2
551373.1 3622596.9 1459.7
551451.1 3622597.3 1462.1
551529.2 3622597.7 1468.5
551607.3 3622598.1 1477.4
551685.4 3622598.5 1494.8
551763.4 3622598.9 1511.6
551841.5 3622599.3 1531.7
551919.6 3622599.7 1554.0
551997.7 3622600.1 1561.9
552075.7 3622600.5 1554.9
552153.8 3622600.9 1562.0
552231.9 3622601.4 1586.0
552310.0 3622601.8 1595.0
552388.0 3622602.2 1606.0
552466.1 3622602.6 1633.8
552544.2 3622603.0 1661.4
552622.3 3622603.4 1695.4
552700.3 3622603.8 1724.8
552778.4 3622604.2 1746.2
552856.5 3622604.7 1728.0
552934.6 3622605.1 1688.5
553012.6 3622605.5 1655.3
553090.7 3622605.9 1657.9
553168.8 3622606.3 1704.2
553246.9 3622606.7 1703.8
553324.9 3622607.2 1674.1
553403.0 3622607.6 1656.8
553481.1 3622608.0 1651.8
553559.2 3622608.4 1665.0
553637.2 3622608.8 1684.9
553715.3 3622609.3 1719.5
553793.4 3622609.7 1760.0
553871.5 3622610.1 1789.9
553949.5 3622610.5 1852.8
554027.6 3622611.0 1874.0
554105.7 3622611.4 1892.6
554183.8 3622611.8 1922.1
554261.9 3622612.2 1922.5
554339.9 3622612.7 1896.5
554418.0 3622613.1 1858.9
554496.1 3622613.5 1811.9
554574.2 3622614.0 1780.7
554652.2 3622614.4 1779.5
554730.3 3622614.8 1803.6
554808.4 3622615.2 1836.6
554886.5 3622615.7 1833.6
554964.5 3622616.1 1793.6
555042.6 3622616.5 1744.5
555120.7 3622617.0 1707.4
555198.8 3622617.4 1681.5
555276.8 3622617.8 1682.6
555354.9 3622618.3 1721.4
555433.0 3622618.7 1739.2
555511.1 3622619.2 1708.6
555589.1 3622619.6 1670.0
538880.7 3622632.5 922.7
538958.7 3622632.8 928.6
539036.8 3622633.1 932.6
539114.9 3622633.4 936.4
539193.0 3622633.7 943.1
539271.0 3622634.0 945.1
539349.1 3622634.3 949.2
539427.2 3622634.6 951.6
539505.3 3622634.9 954.8
539583.3 3622635.2 963.5
539661.4 3622635.5 967.5
539739.5 3622635.9 970.9
539817.5 3622636.2 978.0
539895.6 3622636.5 988.6
539973.7 3622636.8 996.5
540051.8 3622637.1 1002.6
540129.8 3622637.4 1010.7
540207.9 3622637.7 1019.6
540286.0 3622638.1 1028.2
540364.1 3622638.4 1031.9
540442.1 3622638.7 1040.9
540520.2 3622639.0 1050.1
540598.3 3622639.3 1064.0
540676.4 3622639.7 1065.9
540754.4 3622640.0 1065.8
540832.5 3622640.3 1065.1
540910.6 3622640.6 1063.5
540988.7 3622640.9 1066.8
541066.7 3622641.3 1070.8
541144.8 3622641.6 1073.9
541222.9 3622641.9 1080.7
541301.0 3622642.2 1081.9
541379.0 3622642.6 1084.3
541457.1 3622642.9 1096.8
541535.2 3622643.2 1108.1
541613.3 3622643.5 1117.1
541691.3 3622643.9 1125.0
541769.4 3622644.2 1130.8
541847.5 3622644.5 1135.7
541925.6 3622644.9 1139.8
542003.6 3622645.2 1149.1
542081.7 3622645.5 1157.1
542159.8 3622645.8 1159.0
542237.9 3622646.2 1156.1
542315.9 3622646.5 1155.3
542394.0 3622646.8 1153.3
542472.1 3622647.2 1164.1
542550.1 3622647.5 1169.1
542628.2 3622647.8 1169.3
542706.3 3622648.2 1162.3
542784.4 3622648.5 1164.1
542862.4 3622648.9 1154.9
542940.5 3622649.2 1156.7
543018.6 3622649.5 1152.6
543096.7 3622649.9 1152.7
543174.7 3622650.2 1143.7
543252.8 3622650.5 1141.0
543330.9 3622650.9 1144.3
543409.0 3622651.2 1147.2
543487.0 3622651.6 1154.0
543565.1 3622651.9 1159.1
543643.2 3622652.3 1160.0
543721.3 3622652.6 1157.7
543799.3 3622652.9 1141.5
543877.4 3622653.3 1144.4
543955.5 3622653.6 1128.5
544033.6 3622654.0 1124.3
544111.6 3622654.3 1129.9
544189.7 3622654.7 1106.2
544267.8 3622655.0 1112.1
544345.9 3622655.4 1133.0
544423.9 3622655.7 1130.2
544502.0 3622656.1 1107.5
544580.1 3622656.4 1090.7
544658.2 3622656.8 1081.7
544736.2 3622657.1 1072.7
544814.3 3622657.5 1076.4
544892.4 3622657.8 1067.2
544970.5 3622658.2 1055.5
545048.5 3622658.5 1057.5
545126.6 3622658.9 1056.2
545204.7 3622659.2 1044.1
545282.8 3622659.6 1037.1
545360.8 3622660.0 1031.9
545438.9 3622660.3 1027.9
545517.0 3622660.7 1038.0
545595.0 3622661.0 1058.3
545673.1 3622661.4 1068.5
545751.2 3622661.7 1069.4
545829.3 3622662.1 1085.3
545907.3 3622662.5 1099.4
545985.4 3622662.8 1109.4
546063.5 3622663.2 1127.2
546141.6 3622663.6 1133.2
546219.6 3622663.9 1136.5
546297.7 3622664.3 1154.5
546375.8 3622664.6 1178.2
546453.9 3622665.0 1198.0
546531.9 3622665.4 1209.8
546610.0 3622665.7 1225.6
546688.1 3622666.1 1239.6
546766.2 3622666.5 1246.5
546844.2 3622666.8 1262.6
546922.3 3622667.2 1257.9
547000.4 3622667.6 1234.2
547078.5 3622668.0 1225.5
547156.5 3622668.3 1231.9
547234.6 3622668.7 1248.8
547312.7 3622669.1 1254.9
547390.8 3622669.4 1236.1
547468.8 3622669.8 1223.9
547546.9 3622670.2 1228.6
547625.0 3622670.6 1237.3
547703.1 3622670.9 1242.2
547781.1 3622671.3 1248.4
547859.2 3622671.7 1259.6
547937.3 3622672.1 1268.7
548015.4 3622672.4 1281.0
548093.4 3622672.8 1292.2
548171.5 3622673.2 1312.2
548249.6 3622673.6 1342.1
548327.7 3622674.0 1380.9
548405.7 3622674.3 1410.7
548483.8 3622674.7 1447.9
548561.9 3622675.1 1447.2
548640.0 3622675.5 1424.2
548718.0 3622675.9 1395.9
548796.1 3622676.3 1361.5
548874.2 3622676.6 1333.5
548952.3 3622677.0 1321.6
549030.3 3622677.4 1323.5
549108.4 3622677.8 1321.5
549186.5 3622678.2 1330.7
549264.6 3622678.6 1318.9
549342.6 3622679.0 1314.0
549420.7 3622679.3 1332.1
549498.8 3622679.7 1336.2
549576.9 3622680.1 1337.2
549654.9 3622680.5 1350.0
549733.0 3622680.9 1362.8
549811.1 3622681.3 1384.0
549889.2 3622681.7 1410.1
549967.2 3622682.1 1445.8
550045.3 3622682.5 1464.5
550123.4 3622682.9 1470.8
550201.5 3622683.3 1467.2
550279.5 3622683.7 1460.4
550357.6 3622684.1 1463.4
550435.7 3622684.4 1476.9
550513.8 3622684.8 1509.9
550591.8 3622685.2 1541.9
550669.9 3622685.6 1553.9
550748.0 3622686.0 1535.9
550826.1 3622686.4 1509.1
550904.1 3622686.8 1478.2
550982.2 3622687.2 1464.0
551060.3 3622687.6 1460.7
551138.4 3622688.0 1458.4
551216.4 3622688.4 1447.3
551294.5 3622688.8 1454.4
551372.6 3622689.3 1468.5
551450.6 3622689.7 1472.5
551528.7 3622690.1 1477.3
551606.8 3622690.5 1482.5
551684.9 3622690.9 1490.9
551762.9 3622691.3 1504.1
551841.0 3622691.7 1512.1
551919.1 3622692.1 1531.0
551997.2 3622692.5 1561.0
552075.2 3622692.9 1579.0
552153.3 3622693.3 1584.9
552231.4 3622693.7 1600.7
552309.5 3622694.1 1629.7
552387.5 3622694.6 1641.7
552465.6 3622695.0 1645.8
552543.7 3622695.4 1674.9
552621.8 3622695.8 1720.5
552699.8 3622696.2 1722.6
552777.9 3622696.6 1700.8
552856.0 3622697.0 1670.7
552934.1 3622697.5 1647.7
553012.1 3622697.9 1625.7
553090.2 3622698.3 1631.6
553168.3 3622698.7 1658.8
553246.4 3622699.1 1657.6
553324.4 3622699.5 1645.2
553402.5 3622700.0 1626.4
553480.6 3622700.4 1632.9
553558.7 3622700.8 1647.7
553636.7 3622701.2 1674.4
553714.8 3622701.7 1711.2
553792.9 3622702.1 1748.4
553871.0 3622702.5 1785.6
553949.0 3622702.9 1809.8
554027.1 3622703.3 1816.3
554105.2 3622703.8 1844.5
554183.3 3622704.2 1891.8
554261.3 3622704.6 1923.8
554339.4 3622705.1 1915.7
554417.5 3622705.5 1872.2
554495.6 3622705.9 1841.2
554573.6 3622706.3 1824.5
554651.7 3622706.8 1823.8
554729.8 3622707.2 1843.8
554807.9 3622707.6 1865.6
554885.9 3622708.1 1834.5
554964.0 3622708.5 1791.5
555042.1 3622708.9 1753.5
555120.2 3622709.4 1719.4
555198.2 3622709.8 1705.3
555276.3 3622710.2 1728.4
555354.4 3622710.7 1755.7
555432.5 3622711.1 1753.6
555510.5 3622711.5 1710.5
555588.6 3622712.0 1691.7
555666.7 3622712.4 1703.8
538802.2 3622724.5 919.2
538880.3 3622724.8 924.1
538958.4 3622725.1 932.5
539036.4 3622725.4 935.2
539114.5 3622725.8 939.2
539192.6 3622726.1 943.2
539270.7 3622726.4 946.1
539348.7 3622726.7 952.0
539426.8 3622727.0 957.4
539504.9 3622727.3 961.8
539583.0 3622727.6 964.8
539661.0 3622727.9 971.5
539739.1 3622728.2 978.6
539817.2 3622728.5 986.7
539895.3 3622728.9 994.4
539973.3 3622729.2 1006.7
540051.4 3622729.5 1011.9
540129.5 3622729.8 1021.9
540207.5 3622730.1 1031.0
540285.6 3622730.4 1040.1
540363.7 3622730.8 1047.9
540441.8 3622731.1 1053.8
540519.8 3622731.4 1053.7
540597.9 3622731.7 1050.1
540676.0 3622732.0 1044.8
540754.1 3622732.4 1047.0
540832.1 3622732.7 1056.7
540910.2 3622733.0 1061.7
540988.3 3622733.3 1064.9
541066.4 3622733.6 1073.9
541144.4 3622734.0 1076.1
541222.5 3622734.3 1080.9
541300.6 3622734.6 1086.5
541378.6 3622734.9 1086.5
541456.7 3622735.3 1094.3
541534.8 3622735.6 1102.3
541612.9 3622735.9 1110.3
541690.9 3622736.2 1118.2
541769.0 3622736.6 1128.8
541847.1 3622736.9 1137.6
541925.2 3622737.2 1151.9
542003.2 3622737.6 1158.3
542081.3 3622737.9 1161.4
542159.4 3622738.2 1163.2
542237.5 3622738.6 1167.0
542315.5 3622738.9 1163.1
542393.6 3622739.2 1164.3
542471.7 3622739.6 1161.3
542549.8 3622739.9 1164.1
542627.8 3622740.2 1167.8
542705.9 3622740.6 1167.9
542784.0 3622740.9 1171.1
542862.0 3622741.2 1173.9
542940.1 3622741.6 1176.7
543018.2 3622741.9 1175.7
543096.3 3622742.2 1174.8
543174.3 3622742.6 1168.9
543252.4 3622742.9 1164.0
543330.5 3622743.3 1159.1
543408.6 3622743.6 1153.3
543486.6 3622743.9 1154.3
543564.7 3622744.3 1153.1
543642.8 3622744.6 1155.9
543720.9 3622745.0 1162.9
543798.9 3622745.3 1168.7
543877.0 3622745.7 1168.3
543955.1 3622746.0 1152.0
544033.2 3622746.4 1152.0
544111.2 3622746.7 1151.3
544189.3 3622747.1 1125.4
544267.4 3622747.4 1126.1
544345.4 3622747.7 1153.0
544423.5 3622748.1 1151.3
544501.6 3622748.4 1125.6
544579.7 3622748.8 1106.7
544657.7 3622749.2 1088.7
544735.8 3622749.5 1082.4
544813.9 3622749.9 1080.2
544892.0 3622750.2 1067.3
544970.0 3622750.6 1065.4
545048.1 3622750.9 1069.4
545126.2 3622751.3 1061.3
545204.3 3622751.6 1047.1
545282.3 3622752.0 1045.9
545360.4 3622752.3 1042.9
545438.5 3622752.7 1038.8
545516.6 3622753.1 1035.0
545594.6 3622753.4 1038.4
545672.7 3622753.8 1049.7
545750.8 3622754.1 1071.5
545828.8 3622754.5 1095.1
545906.9 3622754.8 1104.0
545985.0 3622755.2 1105.4
546063.1 3622755.6 1102.8
546141.1 3622755.9 1111.6
546219.2 3622756.3 1123.0
546297.3 3622756.7 1148.7
546375.4 3622757.0 1170.6
546453.4 3622757.4 1168.9
546531.5 3622757.8 1182.0
546609.6 3622758.1 1201.9
546687.7 3622758.5 1234.9
546765.7 3622758.9 1257.9
546843.8 3622759.2 1266.7
546921.9 3622759.6 1250.6
547000.0 3622760.0 1239.9
547078.0 3622760.3 1241.2
547156.1 3622760.7 1258.1
547234.2 3622761.1 1272.0
547312.2 3622761.4 1274.8
547390.3 3622761.8 1252.8
547468.4 3622762.2 1236.6
547546.5 3622762.6 1234.4
547624.5 3622762.9 1232.3
547702.6 3622763.3 1245.3
547780.7 3622763.7 1264.3
547858.8 3622764.1 1264.4
547936.8 3622764.4 1273.7
548014.9 3622764.8 1285.9
548093.0 3622765.2 1304.0
548171.1 3622765.6 1319.4
548249.1 3622766.0 1349.3
548327.2 3622766.3 1379.2
548405.3 3622766.7 1417.9
548483.4 3622767.1 1458.9
548561.4 3622767.5 1474.9
548639.5 3622767.9 1449.9
548717.6 3622768.2 1416.9
548795.7 3622768.6 1378.6
548873.7 3622769.0 1347.7
548951.8 3622769.4 1332.7
549029.9 3622769.8 1341.5
549107.9 3622770.2 1338.4
549186.0 3622770.6 1338.6
549264.1 3622770.9 1324.0
549342.2 3622771.3 1322.1
549420.2 3622771.7 1336.1
549498.3 3622772.1 1350.0
549576.4 3622772.5 1350.1
549654.5 3622772.9 1355.2
549732.5 3622773.3 1372.9
549810.6 3622773.7 1396.7
549888.7 3622774.1 1409.8
549966.8 3622774.5 1430.9
550044.8 3622774.9 1437.0
550122.9 3622775.2 1442.0
550201.0 3622775.6 1455.7
550279.1 3622776.0 1468.6
550357.1 3622776.4 1477.2
550435.2 3622776.8 1484.2
550513.3 3622777.2 1506.8
550591.4 3622777.6 1519.8
550669.4 3622778.0 1505.1
550747.5 3622778.4 1490.1
550825.6 3622778.8 1479.1
550903.7 3622779.2 1464.0
550981.7 3622779.6 1471.9
551059.8 3622780.0 1481.3
551137.9 3622780.4 1474.7
551215.9 3622780.8 1463.2
551294.0 3622781.2 1462.0
551372.1 3622781.6 1458.8
551450.2 3622782.0 1462.2
551528.2 3622782.4 1467.4
551606.3 3622782.8 1476.5
551684.4 3622783.3 1482.7
551762.5 3622783.7 1491.1
551840.5 3622784.1 1496.7
551918.6 3622784.5 1508.3
551996.7 3622784.9 1534.0
552074.8 3622785.3 1561.9
552152.8 3622785.7 1585.8
552230.9 3622786.1 1590.8
552309.0 3622786.5 1606.6
552387.1 3622786.9 1620.5
552465.1 3622787.4 1633.8
552543.2 3622787.8 1632.1
552621.3 3622788.2 1642.1
552699.4 3622788.6 1652.6
552777.4 3622789.0 1641.4
552855.5 3622789.4 1623.6
552933.6 3622789.8 1607.1
553011.7 3622790.3 1593.1
553089.7 3622790.7 1593.8
553167.8 3622791.1 1599.1
553245.9 3622791.5 1603.5
553324.0 3622791.9 1605.0
553402.0 3622792.3 1612.1
553480.1 3622792.8 1636.4
553558.2 3622793.2 1660.8
553636.2 3622793.6 1695.0
553714.3 3622794.0 1727.7
553792.4 3622794.5 1762.9
553870.5 3622794.9 1786.6
553948.5 3622795.3 1780.0
554026.6 3622795.7 1783.3
554104.7 3622796.2 1823.0
554182.8 3622796.6 1870.2
554260.8 3622797.0 1922.6
554338.9 3622797.4 1932.6
554417.0 3622797.9 1903.3
554495.1 3622798.3 1888.4
554573.1 3622798.7 1879.5
554651.2 3622799.1 1870.5
554729.3 3622799.6 1865.5
554807.4 3622800.0 1869.5
554885.4 3622800.4 1845.6
554963.5 3622800.9 1807.6
555041.6 3622801.3 1771.6
555119.7 3622801.7 1740.6
555197.7 3622802.2 1745.4
555275.8 3622802.6 1771.4
555353.9 3622803.0 1779.6
555432.0 3622803.5 1749.8
555510.0 3622803.9 1712.7
555588.1 3622804.4 1707.3
555666.2 3622804.8 1708.1
555744.3 3622805.2 1681.4
538723.8 3622816.6 921.6
538801.9 3622816.9 920.9
538879.9 3622817.2 925.7
538958.0 3622817.5 931.6
539036.1 3622817.8 934.5
539114.2 3622818.1 939.2
539192.2 3622818.4 943.1
539270.3 3622818.8 947.4
539348.4 3622819.1 952.5
539426.4 3622819.4 956.4
539504.5 3622819.7 962.3
539582.6 3622820.0 969.7
539660.7 3622820.3 976.8
539738.7 3622820.6 987.1
539816.8 3622820.9 998.3
539894.9 3622821.2 1000.9
539973.0 3622821.6 999.8
540051.0 3622821.9 1000.9
540129.1 3622822.2 1007.5
540207.2 3622822.5 1018.2
540285.2 3622822.8 1031.2
540363.3 3622823.1 1043.9
540441.4 3622823.5 1042.0
540519.5 3622823.8 1034.6
540597.5 3622824.1 1037.7
540675.6 3622824.4 1048.5
540753.7 3622824.7 1064.2
540831.8 3622825.1 1077.0
540909.8 3622825.4 1081.2
540987.9 3622825.7 1083.3
541066.0 3622826.0 1095.5
541144.0 3622826.3 1098.5
541222.1 3622826.7 1103.4
541300.2 3622827.0 1111.4
541378.3 3622827.3 1108.3
541456.3 3622827.6 1108.1
541534.4 3622828.0 1115.0
541612.5 3622828.3 1119.7
541690.6 3622828.6 1127.7
541768.6 3622829.0 1137.0
541846.7 3622829.3 1139.3
541924.8 3622829.6 1144.2
542002.8 3622829.9 1143.0
542080.9 3622830.3 1141.1
542159.0 3622830.6 1141.4
542237.1 3622830.9 1149.4
542315.1 3622831.3 1143.2
542393.2 3622831.6 1141.1
542471.3 3622831.9 1136.6
542549.4 3622832.3 1140.5
542627.4 3622832.6 1147.0
542705.5 3622832.9 1143.8
542783.6 3622833.3 1154.6
542861.6 3622833.6 1171.9
542939.7 3622834.0 1178.1
543017.8 3622834.3 1177.0
543095.9 3622834.6 1175.9
543173.9 3622835.0 1179.1
543252.0 3622835.3 1179.2
543330.1 3622835.6 1180.0
543408.2 3622836.0 1177.9
543486.2 3622836.3 1177.0
543564.3 3622836.7 1175.1
543642.4 3622837.0 1170.0
543720.4 3622837.4 1164.9
543798.5 3622837.7 1163.6
543876.6 3622838.0 1173.3
543954.7 3622838.4 1177.2
544032.7 3622838.7 1180.0
544110.8 3622839.1 1176.0
544188.9 3622839.4 1157.4
544267.0 3622839.8 1153.7
544345.0 3622840.1 1169.7
544423.1 3622840.5 1161.4
544501.2 3622840.8 1130.4
544579.3 3622841.2 1110.5
544657.3 3622841.5 1096.4
544735.4 3622841.9 1090.3
544813.5 3622842.2 1081.4
544891.5 3622842.6 1079.4
544969.6 3622842.9 1081.1
545047.7 3622843.3 1074.0
545125.8 3622843.7 1061.2
545203.8 3622844.0 1056.2
545281.9 3622844.4 1059.0
545360.0 3622844.7 1050.0
545438.1 3622845.1 1048.3
545516.1 3622845.4 1045.4
545594.2 3622845.8 1039.2
545672.3 3622846.2 1040.9
545750.3 3622846.5 1051.2
545828.4 3622846.9 1067.7
545906.5 3622847.2 1079.7
545984.6 3622847.6 1082.3
546062.6 3622848.0 1084.1
546140.7 3622848.3 1092.2
546218.8 3622848.7 1111.2
546296.9 3622849.0 1135.8
546374.9 3622849.4 1143.6
546453.0 3622849.8 1140.8
546531.1 3622850.1 1160.1
546609.2 3622850.5 1179.3
546687.2 3622850.9 1209.1
546765.3 3622851.2 1242.2
546843.4 3622851.6 1263.2
546921.4 3622852.0 1268.9
546999.5 3622852.3 1272.6
547077.6 3622852.7 1273.8
547155.7 3622853.1 1281.2
547233.7 3622853.5 1288.2
547311.8 3622853.8 1271.9
547389.9 3622854.2 1252.6
547468.0 3622854.6 1253.5
547546.0 3622855.0 1259.3
547624.1 3622855.3 1242.5
547702.2 3622855.7 1242.6
547780.2 3622856.1 1256.4
547858.3 3622856.5 1271.4
547936.4 3622856.8 1282.6
548014.5 3622857.2 1296.7
548092.5 3622857.6 1315.9
548170.6 3622858.0 1330.1
548248.7 3622858.3 1352.2
548326.8 3622858.7 1379.4
548404.8 3622859.1 1406.4
548482.9 3622859.5 1452.9
548561.0 3622859.9 1475.4
548639.1 3622860.2 1456.5
548717.1 3622860.6 1418.7
548795.2 3622861.0 1377.0
548873.3 3622861.4 1353.0
548951.3 3622861.8 1351.6
549029.4 3622862.2 1357.3
549107.5 3622862.6 1360.7
549185.6 3622862.9 1355.7
549263.6 3622863.3 1337.1
549341.7 3622863.7 1332.2
549419.8 3622864.1 1348.0
549497.9 3622864.5 1364.8
549575.9 3622864.9 1366.9
549654.0 3622865.3 1380.9
549732.1 3622865.7 1388.0
549810.2 3622866.1 1380.1
549888.2 3622866.4 1384.0
549966.3 3622866.8 1400.9
550044.4 3622867.2 1405.2
550122.4 3622867.6 1413.2
550200.5 3622868.0 1428.9
550278.6 3622868.4 1448.8
550356.7 3622868.8 1467.8
550434.7 3622869.2 1484.2
550512.8 3622869.6 1502.3
550590.9 3622870.0 1497.1
550669.0 3622870.4 1494.0
550747.0 3622870.8 1482.1
550825.1 3622871.2 1461.0
550903.2 3622871.6 1445.8
550981.3 3622872.0 1465.9
551059.3 3622872.4 1487.7
551137.4 3622872.8 1495.2
551215.5 3622873.2 1490.9
551293.5 3622873.6 1491.3
551371.6 3622874.0 1481.1
551449.7 3622874.4 1477.3
551527.8 3622874.8 1475.3
551605.8 3622875.2 1474.4
551683.9 3622875.6 1481.6
551762.0 3622876.0 1500.7
551840.1 3622876.5 1508.8
551918.1 3622876.9 1517.1
551996.2 3622877.3 1532.1
552074.3 3622877.7 1543.9
552152.4 3622878.1 1555.7
552230.4 3622878.5 1550.7
552308.5 3622878.9 1557.9
552386.6 3622879.3 1566.0
552464.6 3622879.7 1582.7
552542.7 3622880.1 1591.5
552620.8 3622880.6 1600.7
552698.9 3622881.0 1600.0
552776.9 3622881.4 1587.0
552855.0 3622881.8 1574.7
552933.1 3622882.2 1576.4
553011.2 3622882.6 1569.8
553089.2 3622883.1 1558.6
553167.3 3622883.5 1565.6
553245.4 3622883.9 1589.5
553323.5 3622884.3 1605.8
553401.5 3622884.7 1626.7
553479.6 3622885.2 1647.4
553557.7 3622885.6 1671.3
553635.7 3622886.0 1711.5
553713.8 3622886.4 1756.6
553791.9 3622886.8 1789.4
553870.0 3622887.3 1773.9
553948.0 3622887.7 1752.0
554026.1 3622888.1 1762.5
554104.2 3622888.5 1808.7
554182.3 3622889.0 1853.7
554260.3 3622889.4 1894.7
554338.4 3622889.8 1906.9
554416.5 3622890.2 1898.9
554494.6 3622890.7 1902.1
554572.6 3622891.1 1892.8
554650.7 3622891.5 1862.9
554728.8 3622892.0 1836.3
554806.9 3622892.4 1833.5
554884.9 3622892.8 1826.5
554963.0 3622893.3 1800.4
555041.1 3622893.7 1776.6
555119.1 3622894.1 1773.7
555197.2 3622894.6 1784.8
555275.3 3622895.0 1796.5
555353.4 3622895.4 1776.4
555431.4 3622895.9 1736.5
555509.5 3622896.3 1716.4
555587.6 3622896.7 1722.2
555665.7 3622897.2 1710.0
555743.7 3622897.6 1669.7
555821.8 3622898.0 1625.9
538645.4 3622908.7 921.6
538723.4 3622909.0 926.1
538801.5 3622909.3 923.0
538879.6 3622909.6 925.5
538957.6 3622909.9 931.2
539035.7 3622910.2 934.4
539113.8 3622910.5 938.7
539191.9 3622910.8 942.7
539269.9 3622911.1 946.5
539348.0 3622911.4 953.4
539426.1 3622911.8 960.5
539504.1 3622912.1 964.5
539582.2 3622912.4 967.6
539660.3 3622912.7 968.9
539738.4 3622913.0 978.1
539816.4 3622913.3 987.8
539894.5 3622913.6 989.0
539972.6 3622913.9 991.8
540050.7 3622914.3 1000.6
540128.7 3622914.6 1004.7
540206.8 3622914.9 1009.6
540284.9 3622915.2 1022.4
540362.9 3622915.5 1029.5
540441.0 3622915.8 1027.2
540519.1 3622916.2 1028.9
540597.2 3622916.5 1039.6
540675.2 3622916.8 1048.5
540753.3 3622917.1 1065.1
540831.4 3622917.4 1078.0
540909.4 3622917.8 1088.4
540987.5 3622918.1 1094.3
541065.6 3622918.4 1105.0
541143.7 3622918.7 1113.0
541221.7 3622919.0 1113.2
541299.8 3622919.4 1124.4
541377.9 3622919.7 1129.5
541455.9 3622920.0 1128.3
541534.0 3622920.4 1125.9
541612.1 3622920.7 1123.4
541690.2 3622921.0 1119.5
541768.2 3622921.3 1119.9
541846.3 3622921.7 1119.2
541924.4 3622922.0 1118.2
542002.5 3622922.3 1118.3
542080.5 3622922.7 1120.3
542158.6 3622923.0 1123.3
542236.7 3622923.3 1128.2
542314.7 3622923.6 1122.4
542392.8 3622924.0 1120.4
542470.9 3622924.3 1121.1
542549.0 3622924.7 1126.8
542627.0 3622925.0 1131.2
542705.1 3622925.3 1134.9
542783.2 3622925.7 1140.7
542861.2 3622926.0 1146.2
542939.3 3622926.3 1151.2
543017.4 3622926.7 1155.5
543095.5 3622927.0 1159.5
543173.5 3622927.3 1163.3
543251.6 3622927.7 1168.1
543329.7 3622928.0 1174.1
543407.8 3622928.4 1179.0
543485.8 3622928.7 1188.8
543563.9 3622929.1 1194.8
543642.0 3622929.4 1191.8
543720.0 3622929.7 1184.7
543798.1 3622930.1 1174.6
543876.2 3622930.4 1168.6
543954.3 3622930.8 1172.5
544032.3 3622931.1 1185.4
544110.4 3622931.5 1195.2
544188.5 3622931.8 1191.3
544266.5 3622932.2 1185.7
544344.6 3622932.5 1181.9
544422.7 3622932.9 1152.7
544500.8 3622933.2 1128.6
544578.8 3622933.6 1120.1
544656.9 3622933.9 1113.2
544735.0 3622934.3 1099.4
544813.1 3622934.6 1091.4
544891.1 3622935.0 1096.1
544969.2 3622935.3 1092.0
545047.3 3622935.7 1073.1
545125.3 3622936.0 1064.9
545203.4 3622936.4 1069.1
545281.5 3622936.7 1072.5
545359.6 3622937.1 1063.7
545437.6 3622937.5 1054.5
545515.7 3622937.8 1053.1
545593.8 3622938.2 1052.9
545671.8 3622938.5 1045.1
545749.9 3622938.9 1041.3
545828.0 3622939.3 1042.4
545906.1 3622939.6 1054.5
545984.1 3622940.0 1061.5
546062.2 3622940.3 1072.0
546140.3 3622940.7 1089.7
546218.4 3622941.1 1103.8
546296.4 3622941.4 1112.0
546374.5 3622941.8 1115.1
546452.6 3622942.2 1122.0
546530.6 3622942.5 1142.9
546608.7 3622942.9 1173.1
546686.8 3622943.3 1209.3
546764.9 3622943.6 1231.2
546842.9 3622944.0 1259.2
546921.0 3622944.4 1282.3
546999.1 3622944.7 1294.2
547077.2 3622945.1 1299.9
547155.2 3622945.5 1301.6
547233.3 3622945.8 1295.5
547311.4 3622946.2 1276.6
547389.4 3622946.6 1268.8
547467.5 3622947.0 1275.5
547545.6 3622947.3 1274.3
547623.7 3622947.7 1253.8
547701.7 3622948.1 1253.7
547779.8 3622948.5 1251.8
547857.9 3622948.8 1262.0
547935.9 3622949.2 1276.9
548014.0 3622949.6 1296.7
548092.1 3622950.0 1327.8
548170.2 3622950.3 1348.9
548248.2 3622950.7 1360.1
548326.3 3622951.1 1384.2
548404.4 3622951.5 1409.0
548482.5 3622951.9 1433.9
548560.5 3622952.2 1454.8
548638.6 3622952.6 1444.6
548716.7 3622953.0 1415.5
548794.7 3622953.4 1380.7
548872.8 3622953.8 1357.0
548950.9 3622954.2 1346.1
549029.0 3622954.5 1354.9
549107.0 3622954.9 1370.9
549185.1 3622955.3 1369.8
549263.2 3622955.7 1346.9
549341.3 3622956.1 1342.9
549419.3 3622956.5 1352.9
549497.4 3622956.9 1367.8
549575.5 3622957.3 1386.7
549653.5 3622957.7 1408.7
549731.6 3622958.0 1402.9
549809.7 3622958.4 1372.2
549887.8 3622958.8 1359.3
549965.8 3622959.2 1370.2
550043.9 3622959.6 1392.9
550122.0 3622960.0 1413.8
550200.1 3622960.4 1408.1
550278.1 3622960.8 1416.2
550356.2 3622961.2 1438.1
550434.3 3622961.6 1465.9
550512.3 3622962.0 1494.2
550590.4 3622962.4 1517.2
550668.5 3622962.8 1521.0
550746.6 3622963.2 1497.6
550824.6 3622963.6 1464.8
550902.7 3622964.0 1439.1
550980.8 3622964.4 1446.2
551058.8 3622964.8 1470.9
551136.9 3622965.2 1496.8
551215.0 3622965.6 1501.8
551293.1 3622966.0 1500.9
551371.1 3622966.4 1497.7
551449.2 3622966.8 1494.9
551527.3 3622967.2 1488.3
551605.4 3622967.6 1479.5
551683.4 3622968.0 1480.5
551761.5 3622968.4 1491.2
551839.6 3622968.8 1497.4
551917.6 3622969.2 1515.7
551995.7 3622969.6 1542.7
552073.8 3622970.1 1551.8
552151.9 3622970.5 1541.9
552229.9 3622970.9 1527.2
552308.0 3622971.3 1523.0
552386.1 3622971.7 1536.9
552464.2 3622972.1 1556.7
552542.2 3622972.5 1553.7
552620.3 3622972.9 1561.7
552698.4 3622973.4 1561.9
552776.4 3622973.8 1554.3
552854.5 3622974.2 1543.9
552932.6 3622974.6 1544.7
553010.7 3622975.0 1548.5
553088.7 3622975.4 1553.4
553166.8 3622975.9 1579.5
553244.9 3622976.3 1611.8
553323.0 3622976.7 1637.0
553401.0 3622977.1 1666.9
553479.1 3622977.5 1686.7
553557.2 3622978.0 1698.3
553635.2 3622978.4 1734.8
553713.3 3622978.8 1781.9
553791.4 3622979.2 1787.6
553869.5 3622979.6 1756.2
553947.5 3622980.1 1725.0
554025.6 3622980.5 1745.2
554103.7 3622980.9 1796.5
554181.8 3622981.3 1832.5
554259.8 3622981.8 1857.8
554337.9 3622982.2 1860.1
554416.0 3622982.6 1847.0
554494.0 3622983.1 1850.7
554572.1 3622983.5 1839.6
554650.2 3622983.9 1814.6
554728.3 3622984.3 1786.4
554806.3 3622984.8 1783.2
554884.4 3622985.2 1778.3
554962.5 3622985.6 1757.4
555040.6 3622986.1 1749.0
555118.6 3622986.5 1767.1
555196.7 3622986.9 1795.3
555274.8 3622987.4 1788.9
555352.9 3622987.8 1760.3
555430.9 3622988.2 1738.0
555509.0 3622988.7 1732.1
555587.1 3622989.1 1725.6
555665.1 3622989.6 1696.9
555743.2 3622990.0 1660.6
555821.3 3622990.4 1611.5
555899.4 3622990.9 1580.6
555977.4 3622991.3 1569.6
538566.9 3623000.8 921.4
538645.0 3623001.1 921.0
538723.1 3623001.4 924.7
538801.1 3623001.7 930.7
538879.2 3623002.0 928.5
538957.3 3623002.3 930.5
539035.4 3623002.6 933.6
539113.4 3623002.9 936.7
539191.5 3623003.2 941.8
539269.6 3623003.5 945.0
539347.6 3623003.8 950.8
539425.7 3623004.1 955.6
539503.8 3623004.4 964.5
539581.9 3623004.8 974.4
539659.9 3623005.1 977.5
539738.0 3623005.4 980.8
539816.1 3623005.7 986.9
539894.1 3623006.0 991.1
539972.2 3623006.3 996.9
540050.3 3623006.6 1008.5
540128.4 3623006.9 1017.4
540206.4 3623007.3 1012.8
540284.5 3623007.6 1013.9
540362.6 3623007.9 1021.0
540440.6 3623008.2 1031.1
540518.7 3623008.5 1042.0
540596.8 3623008.9 1047.8
540674.8 3623009.2 1045.1
540752.9 3623009.5 1050.1
540831.0 3623009.8 1058.8
540909.1 3623010.1 1066.6
540987.1 3623010.5 1075.2
541065.2 3623010.8 1087.0
541143.3 3623011.1 1094.1
541221.3 3623011.4 1099.1
541299.4 3623011.8 1116.1
541377.5 3623012.1 1124.1
541455.6 3623012.4 1117.2
541533.6 3623012.7 1105.4
541611.7 3623013.1 1097.7
541689.8 3623013.4 1095.5
541767.8 3623013.7 1098.1
541845.9 3623014.0 1095.0
541924.0 3623014.4 1095.3
542002.1 3623014.7 1096.4
542080.1 3623015.0 1099.3
542158.2 3623015.4 1104.2
542236.3 3623015.7 1110.3
542314.3 3623016.0 1109.2
542392.4 3623016.4 1118.9
542470.5 3623016.7 1129.9
542548.6 3623017.0 1142.0
542626.6 3623017.4 1148.8
542704.7 3623017.7 1151.7
542782.8 3623018.0 1152.0
542860.8 3623018.4 1149.5
542938.9 3623018.7 1149.6
543017.0 3623019.1 1161.1
543095.1 3623019.4 1174.3
543173.1 3623019.7 1181.4
543251.2 3623020.1 1189.2
543329.3 3623020.4 1190.0
543407.3 3623020.8 1188.9
543485.4 3623021.1 1188.8
543563.5 3623021.4 1198.5
543641.6 3623021.8 1211.4
543719.6 3623022.1 1207.5
543797.7 3623022.5 1194.7
543875.8 3623022.8 1184.8
543953.8 3623023.2 1178.9
544031.9 3623023.5 1177.9
544110.0 3623023.8 1183.8
544188.1 3623024.2 1197.6
544266.1 3623024.5 1202.5
544344.2 3623024.9 1190.4
544422.3 3623025.2 1167.5
544500.4 3623025.6 1151.7
544578.4 3623025.9 1142.5
544656.5 3623026.3 1128.1
544734.6 3623026.6 1115.0
544812.6 3623027.0 1111.0
544890.7 3623027.3 1113.0
544968.8 3623027.7 1097.0
545046.9 3623028.1 1078.0
545124.9 3623028.4 1077.2
545203.0 3623028.8 1085.4
545281.1 3623029.1 1083.5
545359.1 3623029.5 1072.5
545437.2 3623029.8 1063.4
545515.3 3623030.2 1059.4
545593.4 3623030.6 1063.4
545671.4 3623030.9 1058.3
545749.5 3623031.3 1056.2
545827.6 3623031.6 1046.0
545905.6 3623032.0 1042.8
545983.7 3623032.4 1049.9
546061.8 3623032.7 1064.1
546139.9 3623033.1 1076.1
546217.9 3623033.4 1080.9
546296.0 3623033.8 1084.9
546374.1 3623034.2 1102.0
546452.1 3623034.5 1127.1
546530.2 3623034.9 1142.3
546608.3 3623035.3 1164.4
546686.4 3623035.6 1198.0
546764.4 3623036.0 1225.1
546842.5 3623036.4 1251.3
546920.6 3623036.7 1268.5
546998.6 3623037.1 1272.4
547076.7 3623037.5 1285.9
547154.8 3623037.8 1292.4
547232.9 3623038.2 1291.3
547310.9 3623038.6 1290.3
547389.0 3623039.0 1294.5
547467.1 3623039.3 1298.9
547545.1 3623039.7 1289.9
547623.2 3623040.1 1262.7
547701.3 3623040.5 1262.6
547779.4 3623040.8 1268.8
547857.4 3623041.2 1271.9
547935.5 3623041.6 1294.7
548013.6 3623042.0 1314.7
548091.6 3623042.3 1329.8
548169.7 3623042.7 1332.8
548247.8 3623043.1 1349.7
548325.9 3623043.5 1375.5
548403.9 3623043.9 1399.7
548482.0 3623044.2 1408.0
548560.1 3623044.6 1418.0
548638.1 3623045.0 1411.8
548716.2 3623045.4 1384.8
548794.3 3623045.8 1357.9
548872.4 3623046.2 1333.1
548950.4 3623046.5 1316.2
549028.5 3623046.9 1318.4
549106.6 3623047.3 1344.2
549184.7 3623047.7 1369.9
549262.7 3623048.1 1361.7
549340.8 3623048.5 1362.6
549418.9 3623048.9 1377.8
549496.9 3623049.3 1393.7
549575.0 3623049.6 1405.7
549653.1 3623050.0 1420.8
549731.2 3623050.4 1403.9
549809.2 3623050.8 1371.9
549887.3 3623051.2 1348.1
549965.4 3623051.6 1351.2
550043.4 3623052.0 1372.2
550121.5 3623052.4 1375.1
550199.6 3623052.8 1387.9
550277.7 3623053.2 1426.9
550355.7 3623053.6 1458.3
550433.8 3623054.0 1490.2
550511.9 3623054.4 1514.8
550589.9 3623054.8 1528.8
550668.0 3623055.2 1511.0
550746.1 3623055.6 1481.1
550824.2 3623056.0 1455.2
550902.2 3623056.4 1430.1
550980.3 3623056.8 1436.8
551058.4 3623057.2 1468.6
551136.4 3623057.6 1491.8
551214.5 3623058.0 1481.9
551292.6 3623058.4 1464.2
551370.7 3623058.8 1463.3
551448.7 3623059.2 1466.9
551526.8 3623059.6 1463.7
551604.9 3623060.0 1458.5
551682.9 3623060.4 1462.4
551761.0 3623060.8 1471.2
551839.1 3623061.2 1481.1
551917.2 3623061.6 1499.2
551995.2 3623062.0 1527.4
552073.3 3623062.4 1547.7
552151.4 3623062.9 1535.7
552229.5 3623063.3 1520.0
552307.5 3623063.7 1497.8
552385.6 3623064.1 1509.8
552463.7 3623064.5 1525.0
552541.7 3623064.9 1530.1
552619.8 3623065.3 1528.0
552697.9 3623065.7 1530.0
552776.0 3623066.2 1529.8
552854.0 3623066.6 1522.6
552932.1 3623067.0 1525.6
553010.2 3623067.4 1541.8
553088.2 3623067.8 1563.9
553166.3 3623068.2 1598.8
553244.4 3623068.7 1641.7
553322.5 3623069.1 1679.7
553400.5 3623069.5 1712.8
553478.6 3623069.9 1740.6
553556.7 3623070.3 1750.2
553634.7 3623070.8 1772.2
553712.8 3623071.2 1781.5
553790.9 3623071.6 1751.5
553869.0 3623072.0 1717.5
553947.0 3623072.4 1699.7
554025.1 3623072.9 1716.6
554103.2 3623073.3 1767.3
554181.3 3623073.7 1812.4
554259.3 3623074.2 1842.0
554337.4 3623074.6 1832.4
554415.5 3623075.0 1808.8
554493.5 3623075.4 1805.8
554571.6 3623075.9 1803.8
554649.7 3623076.3 1781.8
554727.8 3623076.7 1756.2
554805.8 3623077.2 1743.3
554883.9 3623077.6 1737.2
554962.0 3623078.0 1715.9
555040.0 3623078.5 1724.9
555118.1 3623078.9 1760.8
555196.2 3623079.3 1798.6
555274.3 3623079.8 1788.7
555352.3 3623080.2 1761.6
555430.4 3623080.6 1732.5
555508.5 3623081.1 1706.6
555586.6 3623081.5 1678.7
555664.6 3623081.9 1657.6
555742.7 3623082.4 1631.5
555820.8 3623082.8 1605.5
555898.8 3623083.3 1610.5
555976.9 3623083.7 1622.5
556055.0 3623084.1 1614.5
538488.5 3623092.8 914.8
538566.6 3623093.1 925.7
538644.6 3623093.4 927.8
538722.7 3623093.7 925.6
538800.8 3623094.1 928.6
538878.8 3623094.4 932.5
538956.9 3623094.7 935.6
539035.0 3623095.0 938.6
539113.1 3623095.3 944.5
539191.1 3623095.6 943.7
539269.2 3623095.9 949.8
539347.3 3623096.2 960.7
539425.3 3623096.5 960.8
539503.4 3623096.8 962.7
539581.5 3623097.1 973.4
539659.6 3623097.4 984.2
539737.6 3623097.8 995.0
539815.7 3623098.1 1000.9
539893.8 3623098.4 1007.9
539971.8 3623098.7 1010.3
540049.9 3623099.0 1006.4
540128.0 3623099.3 1012.1
540206.0 3623099.6 1020.7
540284.1 3623100.0 1028.8
540362.2 3623100.3 1036.0
540440.3 3623100.6 1044.8
540518.3 3623100.9 1051.7
540596.4 3623101.2 1063.6
540674.5 3623101.6 1066.0
540752.5 3623101.9 1065.9
540830.6 3623102.2 1063.2
540908.7 3623102.5 1062.1
540986.8 3623102.8 1067.1
541064.8 3623103.2 1072.3
541142.9 3623103.5 1079.2
541221.0 3623103.8 1090.7
541299.0 3623104.1 1099.6
541377.1 3623104.5 1103.6
541455.2 3623104.8 1095.4
541533.2 3623105.1 1086.8
541611.3 3623105.4 1080.9
541689.4 3623105.8 1081.8
541767.5 3623106.1 1086.5
541845.5 3623106.4 1089.3
541923.6 3623106.8 1099.1
542001.7 3623107.1 1101.1
542079.7 3623107.4 1104.2
542157.8 3623107.7 1110.2
542235.9 3623108.1 1111.2
542314.0 3623108.4 1114.0
542392.0 3623108.7 1113.9
542470.1 3623109.1 1118.9
542548.2 3623109.4 1129.0
542626.2 3623109.7 1143.2
542704.3 3623110.1 1154.2
542782.4 3623110.4 1163.9
542860.4 3623110.8 1168.7
542938.5 3623111.1 1165.8
543016.6 3623111.4 1168.6
543094.7 3623111.8 1177.3
543172.7 3623112.1 1193.8
543250.8 3623112.4 1201.1
543328.9 3623112.8 1202.1
543406.9 3623113.1 1203.8
543485.0 3623113.5 1206.5
543563.1 3623113.8 1210.5
543641.2 3623114.2 1217.5
543719.2 3623114.5 1219.4
543797.3 3623114.8 1214.5
543875.4 3623115.2 1205.9
543953.4 3623115.5 1197.1
544031.5 3623115.9 1192.1
544109.6 3623116.2 1187.1
544187.7 3623116.6 1186.8
544265.7 3623116.9 1191.4
544343.8 3623117.3 1197.3
544421.9 3623117.6 1195.4
544499.9 3623118.0 1184.4
544578.0 3623118.3 1166.3
544656.1 3623118.7 1149.3
544734.1 3623119.0 1140.0
544812.2 3623119.4 1134.8
544890.3 3623119.7 1124.8
544968.4 3623120.1 1102.0
545046.4 3623120.4 1089.4
545124.5 3623120.8 1088.6
545202.6 3623121.1 1096.3
545280.6 3623121.5 1085.2
545358.7 3623121.9 1072.3
545436.8 3623122.2 1068.5
545514.9 3623122.6 1067.7
545592.9 3623122.9 1069.7
545671.0 3623123.3 1067.3
545749.1 3623123.7 1063.9
545827.1 3623124.0 1057.7
545905.2 3623124.4 1057.7
545983.3 3623124.7 1045.6
546061.4 3623125.1 1052.8
546139.4 3623125.5 1060.1
546217.5 3623125.8 1061.3
546295.6 3623126.2 1078.3
546373.6 3623126.6 1109.0
546451.7 3623126.9 1128.9
546529.8 3623127.3 1144.2
546607.8 3623127.6 1174.3
546685.9 3623128.0 1210.3
546764.0 3623128.4 1229.2
546842.1 3623128.8 1242.2
546920.1 3623129.1 1249.1
546998.2 3623129.5 1264.0
547076.3 3623129.9 1275.0
547154.3 3623130.2 1274.8
547232.4 3623130.6 1276.6
547310.5 3623131.0 1286.5
547388.6 3623131.3 1291.4
547466.6 3623131.7 1297.6
547544.7 3623132.1 1290.9
547622.8 3623132.5 1280.0
547700.8 3623132.8 1280.9
547778.9 3623133.2 1282.6
547857.0 3623133.6 1284.7
547935.1 3623134.0 1306.0
548013.1 3623134.3 1320.9
548091.2 3623134.7 1322.6
548169.3 3623135.1 1308.4
548247.3 3623135.5 1323.4
548325.4 3623135.9 1352.4
548403.5 3623136.2 1367.6
548481.6 3623136.6 1369.7
548559.6 3623137.0 1368.8
548637.7 3623137.4 1377.1
548715.8 3623137.8 1360.2
548793.8 3623138.2 1337.2
548871.9 3623138.5 1321.2
548950.0 3623138.9 1302.2
549028.1 3623139.3 1308.1
549106.1 3623139.7 1337.0
549184.2 3623140.1 1353.1
549262.3 3623140.5 1365.0
549340.3 3623140.9 1376.7
549418.4 3623141.2 1390.4
549496.5 3623141.6 1409.7
549574.5 3623142.0 1416.0
549652.6 3623142.4 1399.9
549730.7 3623142.8 1382.8
549808.8 3623143.2 1361.9
549886.8 3623143.6 1344.0
549964.9 3623144.0 1332.0
550043.0 3623144.4 1344.2
550121.0 3623144.8 1362.3
550199.1 3623145.2 1393.2
550277.2 3623145.6 1432.0
550355.3 3623146.0 1471.9
550433.3 3623146.4 1509.0
550511.4 3623146.8 1542.0
550589.5 3623147.1 1557.9
550667.5 3623147.5 1536.0
550745.6 3623147.9 1500.1
550823.7 3623148.3 1465.0
550901.8 3623148.7 1427.9
550979.8 3623149.1 1429.8
551057.9 3623149.5 1458.8
551136.0 3623149.9 1487.0
551214.0 3623150.4 1480.1
551292.1 3623150.8 1448.3
551370.2 3623151.2 1431.2
551448.3 3623151.6 1436.3
551526.3 3623152.0 1438.0
551604.4 3623152.4 1451.6
551682.5 3623152.8 1470.4
551760.5 3623153.2 1483.3
551838.6 3623153.6 1487.2
551916.7 3623154.0 1497.4
551994.8 3623154.4 1513.3
552072.8 3623154.8 1529.2
552150.9 3623155.2 1515.6
552229.0 3623155.6 1491.7
552307.0 3623156.1 1475.9
552385.1 3623156.5 1482.1
552463.2 3623156.9 1499.2
552541.3 3623157.3 1506.2
552619.3 3623157.7 1505.2
552697.4 3623158.1 1505.9
552775.5 3623158.5 1502.5
552853.5 3623158.9 1506.1
552931.6 3623159.4 1517.6
553009.7 3623159.8 1541.9
553087.8 3623160.2 1571.1
553165.8 3623160.6 1604.2
553243.9 3623161.0 1650.7
553322.0 3623161.5 1707.4
553400.0 3623161.9 1758.2
553478.1 3623162.3 1785.4
553556.2 3623162.7 1783.9
553634.2 3623163.1 1783.1
553712.3 3623163.6 1764.8
553790.4 3623164.0 1717.2
553868.5 3623164.4 1684.9
553946.5 3623164.8 1684.0
554024.6 3623165.3 1722.6
554102.7 3623165.7 1761.9
554180.7 3623166.1 1799.8
554258.8 3623166.5 1825.3
554336.9 3623167.0 1815.0
554415.0 3623167.4 1776.2
554493.0 3623167.8 1763.4
554571.1 3623168.2 1784.8
554649.2 3623168.7 1770.6
554727.2 3623169.1 1741.8
554805.3 3623169.5 1715.0
554883.4 3623170.0 1700.7
554961.5 3623170.4 1690.6
555039.5 3623170.8 1707.7
555117.6 3623171.3 1762.7
555195.7 3623171.7 1800.9
555273.7 3623172.1 1794.5
555351.8 3623172.6 1756.1
555429.9 3623173.0 1711.4
555508.0 3623173.4 1681.8
555586.0 3623173.9 1667.4
555664.1 3623174.3 1655.3
555742.2 3623174.8 1638.5
555820.2 3623175.2 1636.5
555898.3 3623175.6 1655.4
555976.4 3623176.1 1670.6
556054.5 3623176.5 1661.7
556132.5 3623177.0 1638.5
538332.0 3623184.6 917.1
538410.1 3623184.9 913.5
538488.1 3623185.2 909.2
538566.2 3623185.5 914.0
538644.3 3623185.8 926.0
538722.3 3623186.1 931.6
538800.4 3623186.4 929.9
538878.5 3623186.7 932.1
538956.6 3623187.0 936.7
539034.6 3623187.4 939.6
539112.7 3623187.7 946.6
539190.8 3623188.0 950.7
539268.8 3623188.3 950.7
539346.9 3623188.6 957.6
539425.0 3623188.9 964.7
539503.0 3623189.2 967.9
539581.1 3623189.5 975.5
539659.2 3623189.8 982.2
539737.3 3623190.1 988.4
539815.3 3623190.5 996.6
539893.4 3623190.8 1008.5
539971.5 3623191.1 1020.2
540049.5 3623191.4 1019.2
540127.6 3623191.7 1023.7
540205.7 3623192.0 1033.8
540283.7 3623192.3 1045.7
540361.8 3623192.7 1051.7
540439.9 3623193.0 1057.8
540518.0 3623193.3 1063.8
540596.0 3623193.6 1070.6
540674.1 3623193.9 1062.0
540752.2 3623194.3 1052.4
540830.2 3623194.6 1046.5
540908.3 3623194.9 1047.5
540986.4 3623195.2 1052.3
541064.4 3623195.5 1058.1
541142.5 3623195.9 1064.0
541220.6 3623196.2 1069.1
541298.7 3623196.5 1078.4
541376.7 3623196.8 1086.4
541454.8 3623197.2 1080.4
541532.9 3623197.5 1074.4
541610.9 3623197.8 1081.6
541689.0 3623198.1 1093.8
541767.1 3623198.5 1101.8
541845.1 3623198.8 1107.6
541923.2 3623199.1 1111.2
542001.3 3623199.5 1114.9
542079.4 3623199.8 1116.9
542157.4 3623200.1 1127.8
542235.5 3623200.5 1132.7
542313.6 3623200.8 1131.9
542391.6 3623201.1 1121.2
542469.7 3623201.5 1124.2
542547.8 3623201.8 1123.1
542625.8 3623202.1 1123.3
542703.9 3623202.5 1126.5
542782.0 3623202.8 1137.4
542860.1 3623203.1 1146.2
542938.1 3623203.5 1154.9
543016.2 3623203.8 1159.9
543094.3 3623204.2 1165.0
543172.3 3623204.5 1168.9
543250.4 3623204.8 1172.7
543328.5 3623205.2 1177.7
543406.5 3623205.5 1184.9
543484.6 3623205.9 1192.9
543562.7 3623206.2 1197.7
543640.8 3623206.5 1204.5
543718.8 3623206.9 1211.7
543796.9 3623207.2 1219.8
543875.0 3623207.6 1222.8
543953.0 3623207.9 1216.9
544031.1 3623208.3 1211.1
544109.2 3623208.6 1207.9
544187.2 3623209.0 1201.7
544265.3 3623209.3 1197.7
544343.4 3623209.7 1199.6
544421.5 3623210.0 1201.3
544499.5 3623210.4 1204.1
544577.6 3623210.7 1194.1
544655.7 3623211.1 1178.1
544733.7 3623211.4 1167.1
544811.8 3623211.8 1149.1
544889.9 3623212.1 1126.3
544967.9 3623212.5 1109.4
545046.0 3623212.8 1101.3
545124.1 3623213.2 1104.2
545202.2 3623213.5 1103.2
545280.2 3623213.9 1086.4
545358.3 3623214.2 1081.5
545436.4 3623214.6 1077.5
545514.4 3623215.0 1074.5
545592.5 3623215.3 1079.3
545670.6 3623215.7 1081.2
545748.6 3623216.0 1072.1
545826.7 3623216.4 1069.7
545904.8 3623216.8 1072.7
545982.9 3623217.1 1059.9
546060.9 3623217.5 1048.9
546139.0 3623217.8 1051.8
546217.1 3623218.2 1054.0
546295.1 3623218.6 1066.3
546373.2 3623218.9 1087.5
546451.3 3623219.3 1110.2
546529.3 3623219.7 1136.8
546607.4 3623220.0 1172.8
546685.5 3623220.4 1190.5
546763.6 3623220.8 1190.4
546841.6 3623221.1 1199.9
546919.7 3623221.5 1226.6
546997.8 3623221.9 1255.7
547075.8 3623222.2 1264.0
547153.9 3623222.6 1274.1
547232.0 3623223.0 1281.9
547310.0 3623223.4 1283.8
547388.1 3623223.7 1287.9
547466.2 3623224.1 1293.7
547544.3 3623224.5 1285.6
547622.3 3623224.8 1270.8
547700.4 3623225.2 1265.0
547778.5 3623225.6 1259.0
547856.5 3623226.0 1261.0
547934.6 3623226.4 1272.8
548012.7 3623226.7 1279.6
548090.8 3623227.1 1279.5
548168.8 3623227.5 1282.5
548246.9 3623227.9 1296.5
548325.0 3623228.2 1317.5
548403.0 3623228.6 1335.5
548481.1 3623229.0 1333.5
548559.2 3623229.4 1340.9
548637.2 3623229.8 1343.2
548715.3 3623230.2 1328.3
548793.4 3623230.5 1323.3
548871.5 3623230.9 1308.3
548949.5 3623231.3 1290.2
549027.6 3623231.7 1295.0
549105.7 3623232.1 1310.0
549183.7 3623232.5 1320.3
549261.8 3623232.9 1339.1
549339.9 3623233.2 1353.0
549417.9 3623233.6 1375.8
549496.0 3623234.0 1391.7
549574.1 3623234.4 1393.8
549652.2 3623234.8 1369.9
549730.2 3623235.2 1358.9
549808.3 3623235.6 1352.9
549886.4 3623236.0 1325.9
549964.4 3623236.4 1321.9
550042.5 3623236.8 1347.1
550120.6 3623237.2 1371.1
550198.6 3623237.5 1401.3
550276.7 3623237.9 1435.3
550354.8 3623238.3 1479.9
550432.9 3623238.7 1523.7
550510.9 3623239.1 1556.0
550589.0 3623239.5 1566.3
550667.1 3623239.9 1540.2
550745.1 3623240.3 1500.7
550823.2 3623240.7 1462.5
550901.3 3623241.1 1425.8
550979.4 3623241.5 1419.3
551057.4 3623241.9 1441.1
551135.5 3623242.3 1471.6
551213.6 3623242.7 1470.7
551291.6 3623243.1 1433.2
551369.7 3623243.5 1427.1
551447.8 3623243.9 1453.0
551525.8 3623244.4 1464.0
551603.9 3623244.8 1463.9
551682.0 3623245.2 1473.7
551760.1 3623245.6 1499.3
551838.1 3623246.0 1513.3
551916.2 3623246.4 1515.4
551994.3 3623246.8 1511.1
552072.3 3623247.2 1504.0
552150.4 3623247.6 1496.2
552228.5 3623248.0 1481.6
552306.6 3623248.4 1465.9
552384.6 3623248.8 1467.1
552462.7 3623249.3 1478.2
552540.8 3623249.7 1487.1
552618.8 3623250.1 1485.9
552696.9 3623250.5 1488.7
552775.0 3623250.9 1490.8
552853.0 3623251.3 1517.0
552931.1 3623251.7 1536.0
553009.2 3623252.2 1549.7
553087.3 3623252.6 1578.6
553165.3 3623253.0 1619.8
553243.4 3623253.4 1667.8
553321.5 3623253.8 1735.4
553399.5 3623254.3 1786.3
553477.6 3623254.7 1783.7
553555.7 3623255.1 1767.2
553633.8 3623255.5 1761.9
553711.8 3623255.9 1738.4
553789.9 3623256.4 1692.4
553868.0 3623256.8 1662.2
553946.0 3623257.2 1668.7
554024.1 3623257.6 1715.5
554102.2 3623258.1 1764.1
554180.2 3623258.5 1805.6
554258.3 3623258.9 1819.8
554336.4 3623259.3 1798.6
554414.5 3623259.8 1756.2
554492.5 3623260.2 1735.5
554570.6 3623260.6 1757.4
554648.7 3623261.1 1748.8
554726.7 3623261.5 1725.4
554804.8 3623261.9 1698.6
554882.9 3623262.4 1671.0
554961.0 3623262.8 1671.9
555039.0 3623263.2 1704.6
555117.1 3623263.6 1748.5
555195.2 3623264.1 1788.4
555273.2 3623264.5 1795.6
555351.3 3623265.0 1764.9
555429.4 3623265.4 1729.1
555507.4 3623265.8 1702.9
555585.5 3623266.3 1704.7
555663.6 3623266.7 1700.6
555741.7 3623267.1 1679.4
555819.7 3623267.6 1678.5
555897.8 3623268.0 1693.6
555975.9 3623268.5 1697.5
556053.9 3623268.9 1671.6
556132.0 3623269.3 1625.6
556210.1 3623269.8 1590.5
538253.6 3623276.7 905.6
538331.6 3623277.0 909.2
538409.7 3623277.3 915.3
538487.8 3623277.6 919.2
538565.8 3623277.9 919.5
538643.9 3623278.2 919.1
538722.0 3623278.5 927.9
538800.1 3623278.8 936.1
538878.1 3623279.1 937.5
538956.2 3623279.4 938.0
539034.3 3623279.7 942.0
539112.3 3623280.0 945.7
539190.4 3623280.3 951.5
539268.5 3623280.7 957.6
539346.5 3623281.0 962.6
539424.6 3623281.3 968.3
539502.7 3623281.6 970.4
539580.7 3623281.9 973.9
539658.8 3623282.2 985.7
539736.9 3623282.5 995.4
539815.0 3623282.8 1006.2
539893.0 3623283.1 1012.2
539971.1 3623283.5 1023.4
540049.2 3623283.8 1031.3
540127.2 3623284.1 1037.4
540205.3 3623284.4 1041.7
540283.4 3623284.7 1038.9
540361.4 3623285.0 1035.1
540439.5 3623285.4 1040.9
540517.6 3623285.7 1051.5
540595.6 3623286.0 1047.6
540673.7 3623286.3 1036.9
540751.8 3623286.6 1036.6
540829.9 3623287.0 1044.4
540907.9 3623287.3 1048.5
540986.0 3623287.6 1049.4
541064.1 3623287.9 1050.2
541142.1 3623288.2 1056.3
541220.2 3623288.6 1063.5
541298.3 3623288.9 1065.6
541376.3 3623289.2 1067.5
541454.4 3623289.5 1067.5
541532.5 3623289.9 1080.4
541610.5 3623290.2 1095.3
541688.6 3623290.5 1110.3
541766.7 3623290.9 1120.8
541844.8 3623291.2 1123.2
541922.8 3623291.5 1128.2
542000.9 3623291.8 1131.9
542079.0 3623292.2 1129.8
542157.0 3623292.5 1141.5
542235.1 3623292.8 1152.4
542313.2 3623293.2 1144.5
542391.2 3623293.5 1134.3
542469.3 3623293.8 1145.1
542547.4 3623294.2 1140.4
542625.4 3623294.5 1138.3
542703.5 3623294.8 1135.2
542781.6 3623295.2 1132.3
542859.7 3623295.5 1133.5
542937.7 3623295.9 1137.3
543015.8 3623296.2 1142.8
543093.9 3623296.5 1147.7
543171.9 3623296.9 1153.7
543250.0 3623297.2 1158.8
543328.1 3623297.6 1162.6
543406.1 3623297.9 1167.6
543484.2 3623298.2 1172.9
543562.3 3623298.6 1178.6
543640.3 3623298.9 1184.1
543718.4 3623299.3 1192.8
543796.5 3623299.6 1207.0
543874.6 3623300.0 1217.9
543952.6 3623300.3 1226.8
544030.7 3623300.6 1229.7
544108.8 3623301.0 1226.7
544186.8 3623301.3 1220.9
544264.9 3623301.7 1218.8
544343.0 3623302.0 1219.4
544421.0 3623302.4 1218.1
544499.1 3623302.7 1218.1
544577.2 3623303.1 1216.1
544655.2 3623303.4 1208.0
544733.3 3623303.8 1188.2
544811.4 3623304.1 1159.6
544889.5 3623304.5 1137.9
544967.5 3623304.8 1123.5
545045.6 3623305.2 1120.1
545123.7 3623305.6 1117.1
545201.7 3623305.9 1108.4
545279.8 3623306.3 1093.5
545357.9 3623306.6 1091.4
545435.9 3623307.0 1084.3
545514.0 3623307.3 1082.1
545592.1 3623307.7 1087.9
545670.1 3623308.1 1086.9
545748.2 3623308.4 1080.1
545826.3 3623308.8 1082.2
545904.4 3623309.1 1087.1
545982.4 3623309.5 1079.9
546060.5 3623309.9 1074.0
546138.6 3623310.2 1075.0
546216.6 3623310.6 1070.0
546294.7 3623310.9 1063.9
546372.8 3623311.3 1086.1
546450.8 3623311.7 1118.5
546528.9 3623312.0 1147.4
546607.0 3623312.4 1156.9
546685.1 3623312.8 1149.6
546763.1 3623313.1 1154.8
546841.2 3623313.5 1175.1
546919.3 3623313.9 1197.0
546997.3 3623314.3 1201.8
547075.4 3623314.6 1215.8
547153.5 3623315.0 1238.1
547231.5 3623315.4 1262.3
547309.6 3623315.7 1275.1
547387.7 3623316.1 1278.0
547465.7 3623316.5 1283.0
547543.8 3623316.9 1275.9
547621.9 3623317.2 1243.8
547700.0 3623317.6 1228.9
547778.0 3623318.0 1224.0
547856.1 3623318.4 1214.9
547934.2 3623318.7 1219.6
548012.2 3623319.1 1230.5
548090.3 3623319.5 1246.5
548168.4 3623319.9 1253.5
548246.4 3623320.2 1260.6
548324.5 3623320.6 1290.5
548402.6 3623321.0 1310.5
548480.7 3623321.4 1304.7
548558.7 3623321.8 1311.9
548636.8 3623322.2 1321.0
548714.9 3623322.5 1297.3
548792.9 3623322.9 1289.2
548871.0 3623323.3 1290.0
548949.1 3623323.7 1277.0
549027.1 3623324.1 1288.2
549105.2 3623324.5 1304.5
549183.3 3623324.8 1325.0
549261.3 3623325.2 1334.8
549339.4 3623325.6 1346.0
549417.5 3623326.0 1362.2
549495.6 3623326.4 1366.0
549573.6 3623326.8 1355.7
549651.7 3623327.2 1338.9
549729.8 3623327.6 1321.0
549807.8 3623328.0 1316.9
549885.9 3623328.4 1305.9
549964.0 3623328.7 1316.0
550042.0 3623329.1 1337.0
550120.1 3623329.5 1361.0
550198.2 3623329.9 1392.0
550276.3 3623330.3 1427.0
550354.3 3623330.7 1472.2
550432.4 3623331.1 1521.3
550510.5 3623331.5 1554.0
550588.5 3623331.9 1546.8
550666.6 3623332.3 1515.7
550744.7 3623332.7 1483.9
550822.7 3623333.1 1453.2
550900.8 3623333.5 1425.9
550978.9 3623333.9 1411.9
551056.9 3623334.3 1431.2
551135.0 3623334.7 1452.2
551213.1 3623335.1 1437.0
551291.2 3623335.5 1415.9
551369.2 3623335.9 1419.0
551447.3 3623336.3 1454.9
551525.4 3623336.7 1488.7
551603.4 3623337.1 1493.6
551681.5 3623337.5 1482.0
551759.6 3623338.0 1500.9
551837.6 3623338.4 1523.7
551915.7 3623338.8 1535.4
551993.8 3623339.2 1524.2
552071.9 3623339.6 1496.3
552149.9 3623340.0 1472.1
552228.0 3623340.4 1463.4
552306.1 3623340.8 1459.7
552384.1 3623341.2 1458.9
552462.2 3623341.6 1463.8
552540.3 3623342.1 1469.7
552618.3 3623342.5 1472.8
552696.4 3623342.9 1483.2
552774.5 3623343.3 1494.2
552852.6 3623343.7 1526.0
552930.6 3623344.1 1553.9
553008.7 3623344.5 1570.9
553086.8 3623345.0 1593.4
553164.8 3623345.4 1637.1
553242.9 3623345.8 1685.5
553321.0 3623346.2 1741.0
553399.0 3623346.6 1756.3
553477.1 3623347.1 1727.8
553555.2 3623347.5 1717.3
553633.3 3623347.9 1722.4
553711.3 3623348.3 1708.6
553789.4 3623348.7 1668.8
553867.5 3623349.2 1644.7
553945.5 3623349.6 1665.6
554023.6 3623350.0 1697.9
554101.7 3623350.4 1740.7
554179.7 3623350.9 1792.3
554257.8 3623351.3 1799.3
554335.9 3623351.7 1787.7
554414.0 3623352.2 1748.8
554492.0 3623352.6 1711.4
554570.1 3623353.0 1716.4
554648.2 3623353.4 1710.7
554726.2 3623353.9 1683.7
554804.3 3623354.3 1663.7
554882.4 3623354.7 1653.9
554960.4 3623355.2 1672.6
555038.5 3623355.6 1700.7
555116.6 3623356.0 1742.8
555194.6 3623356.5 1780.4
555272.7 3623356.9 1804.5
555350.8 3623357.3 1782.4
555428.9 3623357.8 1753.6
555506.9 3623358.2 1742.8
555585.0 3623358.6 1748.8
555663.1 3623359.1 1730.7
555741.1 3623359.5 1709.8
555819.2 3623360.0 1710.7
555897.3 3623360.4 1725.5
555975.3 3623360.8 1711.3
556053.4 3623361.3 1674.5
556131.5 3623361.7 1631.7
556209.6 3623362.2 1582.7
556287.6 3623362.6 1542.9
538175.1 3623368.8 905.0
